332.310133 616.520142 -138.528278
331.097236 616.411739 -136.941732
329.884340 616.303335 -135.355185
328.671443 616.194931 -133.768638
327.458546 616.086527 -132.182092
326.245650 615.978124 -130.595545
325.032753 615.869720 -129.008998
323.819856 615.761316 -127.422451
322.606960 615.652912 -125.835905
321.394063 615.544509 -124.249358
320.181166 615.436105 -122.662811
318.968270 615.327701 -121.076265
317.755373 615.219297 -119.489718
316.542477 615.110894 -117.903171
315.329580 615.002490 -116.316625
314.116683 614.894086 -114.730078
312.903787 614.785683 -113.143531
311.690890 614.677279 -111.556985
310.477993 614.568875 -109.970438
309.265097 614.460471 -108.383891
308.052200 614.352068 -106.797344
306.839304 614.243664 -105.210798
305.626407 614.135260 -103.624251
304.413510 614.026856 -102.037704
303.200614 613.918453 -100.451158
301.987717 613.810049 -98.864611
300.774820 613.701645 -97.278064
299.561924 613.593241 -95.691518
298.349027 613.484838 -94.104971
297.136131 613.376434 -92.518424
295.923234 613.268030 -90.931878
294.710337 613.159626 -89.345331
293.497441 613.051223 -87.758784
292.284544 612.942819 -86.172238
291.071647 612.834415 -84.585691
289.858751 612.726012 -82.999144
288.645854 612.617608 -81.412597
287.432958 612.509204 -79.826051
286.220061 612.400800 -78.239504
285.007164 612.292397 -76.652957
283.794268 612.183993 -75.066411
282.581371 612.075589 -73.479864
281.368474 611.967185 -71.893317
280.155578 611.858782 -70.306771
278.942681 611.750378 -68.720224
277.729785 611.641974 -67.133677
276.516888 611.533570 -65.547131
275.303991 611.425167 -63.960584
274.091095 611.316763 -62.374037
272.878198 611.208359 -60.787490
271.665301 611.099956 -59.200944
270.452405 610.991552 -57.614397
269.239508 610.883148 -56.027850
268.026612 610.774744 -54.441304
266.813715 610.666341 -52.854757
265.600818 610.557937 -51.268210
264.387922 610.449533 -49.681664
263.102309 610.334630 -48.000000
265.070571 609.985352 -47.937162
267.038834 609.636074 -47.874323
269.007096 609.286795 -47.811485
270.975358 608.937517 -47.748647
272.943620 608.588239 -47.685808
274.911882 608.238960 -47.622970
276.880144 607.889682 -47.560132
278.848407 607.540404 -47.497293
280.816669 607.191125 -47.434455
282.784931 606.841847 -47.371617
284.753193 606.492568 -47.308779
286.721455 606.143290 -47.245940
288.689717 605.794012 -47.183102
290.657980 605.444733 -47.120264
292.626242 605.095455 -47.057425
294.594504 604.746177 -46.994587
296.562766 604.396898 -46.931749
298.531028 604.047620 -46.868910
300.499291 603.698342 -46.806072
302.467553 603.349063 -46.743234
304.435815 602.999785 -46.680395
306.404077 602.650507 -46.617557
308.372339 602.301228 -46.554719
310.340601 601.951950 -46.491880
312.308864 601.602672 -46.429042
314.277126 601.253393 -46.366204
316.245388 600.904115 -46.303365
318.213650 600.554836 -46.240527
320.181912 600.205558 -46.177689
322.150174 599.856280 -46.114850
324.118437 599.507001 -46.052012
326.086699 599.157723 -45.989174
328.054961 598.808445 -45.926336
330.023223 598.459166 -45.863497
331.991485 598.109888 -45.800659
333.959747 597.760610 -45.737821
335.928010 597.411331 -45.674982
337.896272 597.062053 -45.612144
339.864534 596.712775 -45.549306
341.832796 596.363496 -45.486467
343.801058 596.014218 -45.423629
345.769320 595.664939 -45.360791
347.737583 595.315661 -45.297952
349.705845 594.966383 -45.235114
351.674107 594.617104 -45.172276
353.642369 594.267826 -45.109437
355.610631 593.918548 -45.046599
357.578894 593.569269 -44.983761
359.547156 593.219991 -44.920922
361.515418 592.870713 -44.858084
363.483680 592.521434 -44.795246
365.451942 592.172156 -44.732407
367.420204 591.822878 -44.669569
369.388467 591.473599 -44.606731
371.356729 591.124321 -44.543893
373.324991 590.775043 -44.481054
375.293253 590.425764 -44.418216
377.261515 590.076486 -44.355378
379.229777 589.727207 -44.292539
381.198040 589.377929 -44.229701
383.166302 589.028651 -44.166863
385.134564 588.679372 -44.104024
387.102826 588.330094 -44.041186
389.071088 587.980816 -43.978348
391.039350 587.631537 -43.915509
393.007613 587.282259 -43.852671
394.975875 586.932981 -43.789833
396.944137 586.583702 -43.726994
398.912399 586.234424 -43.664156
400.880661 585.885146 -43.601318
402.848923 585.535867 -43.538479
404.817186 585.186589 -43.475641
406.785448 584.837311 -43.412803
408.753710 584.488032 -43.349964
410.721972 584.138754 -43.287126
412.690234 583.789475 -43.224288
414.658496 583.440197 -43.161450
416.626759 583.090919 -43.098611
418.595021 582.741640 -43.035773
420.563283 582.392362 -42.972935
422.531545 582.043084 -42.910096
424.499807 581.693805 -42.847258
426.468070 581.344527 -42.784420
428.436332 580.995249 -42.721581
430.404594 580.645970 -42.658743
432.372856 580.296692 -42.595905
434.341118 579.947414 -42.533066
436.309380 579.598135 -42.470228
438.277643 579.248857 -42.407390
440.245905 578.899578 -42.344551
442.214167 578.550300 -42.281713
444.182429 578.201022 -42.218875
446.150691 577.851743 -42.156036
448.118953 577.502465 -42.093198
450.087216 577.153187 -42.030360
452.055478 576.803908 -41.967521
454.023740 576.454630 -41.904683
455.992002 576.105352 -41.841845
457.960264 575.756073 -41.779007
459.928526 575.406795 -41.716168
461.896789 575.057517 -41.653330
463.865051 574.708238 -41.590492
465.833313 574.358960 -41.527653
467.801575 574.009682 -41.464815
469.769837 573.660403 -41.401977
471.738099 573.311125 -41.339138
473.706362 572.961846 -41.276300
475.674624 572.612568 -41.213462
477.642886 572.263290 -41.150623
479.611148 571.914011 -41.087785
481.579410 571.564733 -41.024947
483.547673 571.215455 -40.962108
485.515935 570.866176 -40.899270
487.484197 570.516898 -40.836432
489.452459 570.167620 -40.773593
491.420721 569.818341 -40.710755
493.388983 569.469063 -40.647917
495.357246 569.119785 -40.585079
497.325508 568.770506 -40.522240
499.293770 568.421228 -40.459402
501.262032 568.071950 -40.396564
503.230294 567.722671 -40.333725
505.198556 567.373393 -40.270887
507.166819 567.024114 -40.208049
509.135081 566.674836 -40.145210
511.103343 566.325558 -40.082372
513.071605 565.976279 -40.019534
515.039867 565.627001 -39.956695
517.008129 565.277723 -39.893857
518.976392 564.928444 -39.831019
520.944654 564.579166 -39.768180
522.912916 564.229888 -39.705342
524.881178 563.880609 -39.642504
526.849440 563.531331 -39.579665
528.817702 563.182053 -39.516827
530.785965 562.832774 -39.453989
532.754227 562.483496 -39.391150
534.722489 562.134218 -39.328312
536.690751 561.784939 -39.265474
538.659013 561.435661 -39.202636
540.627275 561.086382 -39.139797
542.595538 560.737104 -39.076959
544.563800 560.387826 -39.014121
546.532062 560.038547 -38.951282
548.500324 559.689269 -38.888444
550.468586 559.339991 -38.825606
552.436849 558.990712 -38.762767
554.405111 558.641434 -38.699929
556.373373 558.292156 -38.637091
558.341635 557.942877 -38.574252
560.309897 557.593599 -38.511414
562.278159 557.244321 -38.448576
564.246422 556.895042 -38.385737
566.214684 556.545764 -38.322899
568.182946 556.196485 -38.260061
570.151208 555.847207 -38.197222
572.119470 555.497929 -38.134384
574.087732 555.148650 -38.071546
576.055995 554.799372 -38.008707
578.024257 554.450094 -37.945869
579.992519 554.100815 -37.883031
581.960781 553.751537 -37.820193
583.929043 553.402259 -37.757354
585.897305 553.052980 -37.694516
587.865568 552.703702 -37.631678
589.833830 552.354424 -37.568839
591.802092 552.005145 -37.506001
593.770354 551.655867 -37.443163
595.738616 551.306589 -37.380324
597.706878 550.957310 -37.317486
599.675141 550.608032 -37.254648
601.643403 550.258753 -37.191809
603.611665 549.909475 -37.128971
605.579927 549.560197 -37.066133
607.548189 549.210918 -37.003294
609.516452 548.861640 -36.940456
611.484714 548.512362 -36.877618
613.452976 548.163083 -36.814779
615.421238 547.813805 -36.751941
617.389500 547.464527 -36.689103
619.357762 547.115248 -36.626264
621.326025 546.765970 -36.563426
623.294287 546.416692 -36.500588
625.262549 546.067413 -36.437750
627.230811 545.718135 -36.374911
629.199073 545.368857 -36.312073
631.167335 545.019578 -36.249235
633.135598 544.670300 -36.186396
635.103860 544.321021 -36.123558
637.072122 543.971743 -36.060720
639.040384 543.622465 -35.997881
641.008646 543.273186 -35.935043
642.976908 542.923908 -35.872205
644.945171 542.574630 -35.809366
646.913433 542.225351 -35.746528
648.881695 541.876073 -35.683690
650.849957 541.526795 -35.620851
652.818219 541.177516 -35.558013
654.786481 540.828238 -35.495175
656.754744 540.478960 -35.432336
658.723006 540.129681 -35.369498
660.691268 539.780403 -35.306660
662.659530 539.431125 -35.243821
664.627792 539.081846 -35.180983
666.596054 538.732568 -35.118145
668.564317 538.383289 -35.055307
670.532579 538.034011 -34.992468
672.500841 537.684733 -34.929630
674.469103 537.335454 -34.866792
676.437365 536.986176 -34.803953
678.405628 536.636898 -34.741115
680.373890 536.287619 -34.678277
682.342152 535.938341 -34.615438
684.310414 535.589063 -34.552600
686.278676 535.239784 -34.489762
688.246938 534.890506 -34.426923
690.215201 534.541228 -34.364085
692.183463 534.191949 -34.301247
694.151725 533.842671 -34.238408
696.119987 533.493392 -34.175570
698.088249 533.144114 -34.112732
700.056511 532.794836 -34.049893
702.024774 532.445557 -33.987055
703.993036 532.096279 -33.924217
705.961298 531.747001 -33.861378
707.929560 531.397722 -33.798540
709.897822 531.048444 -33.735702
711.866084 530.699166 -33.672864
713.834347 530.349887 -33.610025
715.802609 530.000609 -33.547187
717.770871 529.651331 -33.484349
719.739133 529.302052 -33.421510
721.707395 528.952774 -33.358672
723.675657 528.603496 -33.295834
725.643920 528.254217 -33.232995
727.612182 527.904939 -33.170157
729.580444 527.555660 -33.107319
731.548706 527.206382 -33.044480
733.516968 526.857104 -32.981642
735.485231 526.507825 -32.918804
737.453493 526.158547 -32.855965
739.421755 525.809269 -32.793127
741.390017 525.459990 -32.730289
743.358279 525.110712 -32.667450
745.326541 524.761434 -32.604612
747.294804 524.412155 -32.541774
749.263066 524.062877 -32.478936
751.231328 523.713599 -32.416097
753.199590 523.364320 -32.353259
755.167852 523.015042 -32.290421
757.136114 522.665764 -32.227582
759.104377 522.316485 -32.164744
761.072639 521.967207 -32.101906
764.264591 521.400778 -32.000000
765.572107 520.943148 -33.442559
766.879622 520.485517 -34.885119
768.187138 520.027887 -36.327678
769.494653 519.570257 -37.770238
770.802169 519.112626 -39.212797
772.109684 518.654996 -40.655356
773.417200 518.197365 -42.097916
774.724715 517.739735 -43.540475
776.032231 517.282104 -44.983035
777.339746 516.824474 -46.425594
778.647262 516.366844 -47.868153
779.954777 515.909213 -49.310713
781.262293 515.451583 -50.753272
782.569808 514.993952 -52.195832
783.877324 514.536322 -53.638391
785.184839 514.078691 -55.080950
786.492355 513.621061 -56.523510
787.799870 513.163431 -57.966069
789.107386 512.705800 -59.408629
790.414901 512.248170 -60.851188
791.722417 511.790539 -62.293747
793.029932 511.332909 -63.736307
794.337448 510.875278 -65.178866
795.644963 510.417648 -66.621426
796.952479 509.960018 -68.063985
798.259994 509.502387 -69.506544
799.567510 509.044757 -70.949104
800.875025 508.587126 -72.391663
802.182541 508.129496 -73.834223
803.490056 507.671865 -75.276782
804.797572 507.214235 -76.719341
806.105087 506.756605 -78.161901
807.412603 506.298974 -79.604460
808.720118 505.841344 -81.047020
810.027634 505.383713 -82.489579
811.335149 504.926083 -83.932138
812.642665 504.468453 -85.374698
813.950180 504.010822 -86.817257
815.257696 503.553192 -88.259817
816.565211 503.095561 -89.702376
817.872727 502.637931 -91.144935
819.180242 502.180300 -92.587495
820.487758 501.722670 -94.030054
821.795273 501.265040 -95.472613
823.102789 500.807409 -96.915173
824.410304 500.349779 -98.357732
825.717820 499.892148 -99.800292
827.025335 499.434518 -101.242851
828.332851 498.976887 -102.685410
829.640366 498.519257 -104.127970
830.947882 498.061627 -105.570529
832.255397 497.603996 -107.013089
833.562913 497.146366 -108.455648
834.870428 496.688735 -109.898207
836.177944 496.231105 -111.340767
837.485459 495.773474 -112.783326
838.792975 495.315844 -114.225886
840.100490 494.858214 -115.668445
841.408006 494.400583 -117.111004
842.715521 493.942953 -118.553564
844.023037 493.485322 -119.996123
845.330552 493.027692 -121.438683
846.638068 492.570061 -122.881242
847.945583 492.112431 -124.323801
849.253099 491.654801 -125.766361
850.560614 491.197170 -127.208920
851.868130 490.739540 -128.651480
853.175645 490.281909 -130.094039
854.483161 489.824279 -131.536598
855.790676 489.366648 -132.979158
857.098192 488.909018 -134.421717
858.405707 488.451388 -135.864277
859.713223 487.993757 -137.306836
861.020738 487.536127 -138.749395
862.328254 487.078496 -140.191955
863.635769 486.620866 -141.634514
864.943285 486.163236 -143.077074
866.250800 485.705605 -144.519633
867.558316 485.247975 -145.962192
868.865831 484.790344 -147.404752
870.173347 484.332714 -148.847311
871.480862 483.875083 -150.289871
872.788378 483.417453 -151.732430
874.095893 482.959823 -153.174989
875.403409 482.502192 -154.617549
876.710924 482.044562 -156.060108
878.018440 481.586931 -157.502668
879.325955 481.129301 -158.945227
880.633471 480.671670 -160.387786
881.940986 480.214040 -161.830346
883.248502 479.756410 -163.272905
884.556017 479.298779 -164.715465
885.863533 478.841149 -166.158024
887.533074 478.256809 -168.000000
888.883288 476.781370 -168.000000
890.233503 475.305931 -168.000000
891.583717 473.830492 -168.000000
892.933932 472.355052 -168.000000
894.284146 470.879613 -168.000000
895.634361 469.404174 -168.000000
896.984575 467.928735 -168.000000
898.334790 466.453296 -168.000000
899.685004 464.977856 -168.000000
901.035219 463.502417 -168.000000
902.385433 462.026978 -168.000000
903.735648 460.551539 -168.000000
905.085862 459.076099 -168.000000
906.436076 457.600660 -168.000000
907.786291 456.125221 -168.000000
909.136505 454.649782 -168.000000
910.486720 453.174343 -168.000000
911.836934 451.698903 -168.000000
913.187149 450.223464 -168.000000
914.537363 448.748025 -168.000000
915.887578 447.272586 -168.000000
917.237792 445.797146 -168.000000
918.588007 444.321707 -168.000000
919.938221 442.846268 -168.000000
921.288436 441.370829 -168.000000
922.638650 439.895390 -168.000000
923.988865 438.419950 -168.000000
925.339079 436.944511 -168.000000
926.689293 435.469072 -168.000000
928.039508 433.993633 -168.000000
929.389722 432.518193 -168.000000
930.739937 431.042754 -168.000000
932.090151 429.567315 -168.000000
933.440366 428.091876 -168.000000
934.790580 426.616437 -168.000000
936.140795 425.140997 -168.000000
937.491009 423.665558 -168.000000
938.841224 422.190119 -168.000000
940.191438 420.714680 -168.000000
941.541653 419.239241 -168.000000
942.891867 417.763801 -168.000000
944.242082 416.288362 -168.000000
945.592296 414.812923 -168.000000
946.942510 413.337484 -168.000000
948.292725 411.862044 -168.000000
949.642939 410.386605 -168.000000
950.993154 408.911166 -168.000000
952.343368 407.435727 -168.000000
953.693583 405.960288 -168.000000
955.043797 404.484848 -168.000000
956.394012 403.009409 -168.000000
957.744226 401.533970 -168.000000
959.094441 400.058531 -168.000000
960.444655 398.583091 -168.000000
961.794870 397.107652 -168.000000
963.145084 395.632213 -168.000000
964.495299 394.156774 -168.000000
965.845513 392.681335 -168.000000
967.195727 391.205895 -168.000000
968.545942 389.730456 -168.000000
969.896156 388.255017 -168.000000
971.246371 386.779578 -168.000000
972.596585 385.304138 -168.000000
973.946800 383.828699 -168.000000
975.297014 382.353260 -168.000000
976.647229 380.877821 -168.000000
977.997443 379.402382 -168.000000
979.347658 377.926942 -168.000000
980.697872 376.451503 -168.000000
982.048087 374.976064 -168.000000
983.418457 373.478599 -168.000000
985.277681 372.815858 -168.322584
987.136905 372.153117 -168.645168
988.996129 371.490376 -168.967753
990.855353 370.827635 -169.290337
992.714577 370.164894 -169.612921
994.573801 369.502153 -169.935505
996.433025 368.839412 -170.258089
998.292249 368.176670 -170.580674
1000.151473 367.513929 -170.903258
1002.010697 366.851188 -171.225842
1003.869920 366.188447 -171.548426
1005.729144 365.525706 -171.871010
1007.588368 364.862965 -172.193595
1009.447592 364.200224 -172.516179
1011.306816 363.537483 -172.838763
1013.166040 362.874742 -173.161347
1015.025264 362.212001 -173.483932
1016.884488 361.549259 -173.806516
1018.743712 360.886518 -174.129100
1020.602936 360.223777 -174.451684
1022.462160 359.561036 -174.774268
1024.321384 358.898295 -175.096853
1026.180608 358.235554 -175.419437
1028.039832 357.572813 -175.742021
1029.899056 356.910072 -176.064605
1031.758280 356.247331 -176.387189
1033.617504 355.584590 -176.709774
1035.476727 354.921849 -177.032358
1037.335951 354.259107 -177.354942
1039.195175 353.596366 -177.677526
1041.054399 352.933625 -178.000110
1042.913623 352.270884 -178.322695
1044.772847 351.608143 -178.645279
1046.632071 350.945402 -178.967863
1048.491295 350.282661 -179.290447
1050.350519 349.619920 -179.613031
1052.209743 348.957179 -179.935616
1054.068967 348.294438 -180.258200
1055.928191 347.631696 -180.580784
1057.787415 346.968955 -180.903368
1059.646639 346.306214 -181.225953
1061.505863 345.643473 -181.548537
1063.365087 344.980732 -181.871121
1065.224311 344.317991 -182.193705
1067.083535 343.655250 -182.516289
1068.942758 342.992509 -182.838874
1070.801982 342.329768 -183.161458
1072.661206 341.667027 -183.484042
1074.520430 341.004285 -183.806626
1076.379654 340.341544 -184.129210
1078.238878 339.678803 -184.451795
1080.098102 339.016062 -184.774379
1081.957326 338.353321 -185.096963
1083.816550 337.690580 -185.419547
1085.675774 337.027839 -185.742131
1087.534998 336.365098 -186.064716
1089.394222 335.702357 -186.387300
1091.253446 335.039616 -186.709884
1093.112670 334.376875 -187.032468
1094.971894 333.714133 -187.355052
1096.831118 333.051392 -187.677637
1098.690342 332.388651 -188.000221
1100.549565 331.725910 -188.322805
1102.408789 331.063169 -188.645389
1104.268013 330.400428 -188.967974
1106.127237 329.737687 -189.290558
1107.986461 329.074946 -189.613142
1109.845685 328.412205 -189.935726
1111.704909 327.749464 -190.258310
1113.564133 327.086722 -190.580895
1115.423357 326.423981 -190.903479
1117.282581 325.761240 -191.226063
1119.141805 325.098499 -191.548647
1121.743191 324.171206 -192.000000
1122.228262 322.230921 -192.000000
1122.713333 320.290636 -192.000000
1123.198404 318.350351 -192.000000
1123.683476 316.410066 -192.000000
1124.168547 314.469781 -192.000000
1124.653618 312.529496 -192.000000
1125.138689 310.589211 -192.000000
1125.623761 308.648926 -192.000000
1126.108832 306.708641 -192.000000
1126.593903 304.768356 -192.000000
1127.078974 302.828071 -192.000000
1127.564046 300.887786 -192.000000
1128.049117 298.947501 -192.000000
1128.534188 297.007216 -192.000000
1129.019259 295.066931 -192.000000
1129.504331 293.126646 -192.000000
1129.989402 291.186361 -192.000000
1130.474473 289.246076 -192.000000
1130.959544 287.305791 -192.000000
1131.444616 285.365506 -192.000000
1131.929687 283.425221 -192.000000
1132.414758 281.484936 -192.000000
1132.899829 279.544651 -192.000000
1133.384901 277.604366 -192.000000
1133.869972 275.664081 -192.000000
1134.355043 273.723796 -192.000000
1134.840114 271.783511 -192.000000
1135.325186 269.843226 -192.000000
1135.810257 267.902941 -192.000000
1136.295328 265.962656 -192.000000
1136.780399 264.022371 -192.000000
1137.265471 262.082086 -192.000000
1137.750542 260.141801 -192.000000
1138.235613 258.201516 -192.000000
1138.720684 256.261231 -192.000000
1139.205756 254.320946 -192.000000
1139.690827 252.380661 -192.000000
1140.233463 250.210117 -192.000000
1140.233463 248.761458 -190.621092
1140.233463 247.312800 -189.242183
1140.233463 245.864141 -187.863275
1140.233463 244.415482 -186.484367
1140.233463 242.966824 -185.105458
1140.233463 241.518165 -183.726550
1140.233463 240.069507 -182.347641
1140.233463 238.620848 -180.968733
1140.233463 237.172189 -179.589825
1140.233463 235.723531 -178.210916
1140.233463 234.274872 -176.832008
1140.233463 232.826214 -175.453100
1140.233463 231.377555 -174.074191
1140.233463 229.928896 -172.695283
1140.233463 228.480238 -171.316375
1140.233463 227.031579 -169.937466
1140.233463 225.582921 -168.558558
1140.233463 224.134262 -167.179649
1140.233463 222.685603 -165.800741
1140.233463 221.236945 -164.421833
1140.233463 219.788286 -163.042924
1140.233463 218.339628 -161.664016
1140.233463 216.890969 -160.285108
1140.233463 215.442310 -158.906199
1140.233463 213.993652 -157.527291
1140.233463 212.544993 -156.148383
1140.233463 211.096335 -154.769474
1140.233463 209.647676 -153.390566
1140.233463 208.199018 -152.011657
1140.233463 206.750359 -150.632749
1140.233463 205.301700 -149.253841
1140.233463 203.853042 -147.874932
1140.233463 202.404383 -146.496024
1140.233463 200.955725 -145.117116
1140.233463 199.507066 -143.738207
1140.233463 198.058407 -142.359299
1140.233463 196.609749 -140.980390
1140.233463 195.161090 -139.601482
1140.233463 193.712432 -138.222574
1140.233463 192.263773 -136.843665
1140.233463 190.815114 -135.464757
1140.233463 189.366456 -134.085849
1140.233463 187.917797 -132.706940
1140.233463 186.469139 -131.328032
1140.233463 185.020480 -129.949124
1140.233463 183.571821 -128.570215
1140.233463 182.123163 -127.191307
1140.233463 180.674504 -125.812398
1140.233463 179.225846 -124.433490
1140.233463 177.777187 -123.054582
1140.233463 176.328528 -121.675673
1140.233463 174.879870 -120.296765
1140.233463 173.431211 -118.917857
1140.233463 171.982553 -117.538948
1140.233463 170.533894 -116.160040
1140.233463 169.085235 -114.781132
1140.233463 167.636577 -113.402223
1140.233463 166.187918 -112.023315
1140.233463 164.739260 -110.644406
1140.233463 163.290601 -109.265498
1140.233463 161.841943 -107.886590
1140.233463 160.393284 -106.507681
1140.233463 158.944625 -105.128773
1140.233463 157.495967 -103.749865
1140.233463 156.047308 -102.370956
1140.233463 154.598650 -100.992048
1140.233463 153.149991 -99.613140
1140.233463 151.701332 -98.234231
1140.233463 150.252674 -96.855323
1140.233463 148.804015 -95.476414
1140.233463 147.355357 -94.097506
1140.233463 145.906698 -92.718598
1140.233463 144.458039 -91.339689
1140.233463 143.009381 -89.960781
1140.233463 141.560722 -88.581873
1140.233463 140.112064 -87.202964
1140.233463 138.663405 -85.824056
1140.233463 137.214746 -84.445148
1140.233463 135.766088 -83.066239
1140.233463 134.317429 -81.687331
1140.233463 132.868771 -80.308422
1140.233463 131.420112 -78.929514
1140.233463 129.971453 -77.550606
1140.233463 128.522795 -76.171697
1140.233463 127.074136 -74.792789
1140.233463 125.625478 -73.413881
1140.233463 124.176819 -72.034972
1140.233463 122.728160 -70.656064
1140.233463 121.279502 -69.277156
1140.233463 119.830843 -67.898247
1140.233463 118.382185 -66.519339
1140.233463 116.933526 -65.140430
1140.233463 115.484868 -63.761522
1140.233463 114.036209 -62.382614
1140.233463 112.587550 -61.003705
1140.233463 111.138892 -59.624797
1140.233463 109.690233 -58.245889
1140.233463 108.241575 -56.866980
1140.233463 106.792916 -55.488072
1140.233463 105.344257 -54.109163
1140.233463 103.895599 -52.730255
1140.233463 102.446940 -51.351347
1140.233463 100.998282 -49.972438
1140.233463 99.549623 -48.593530
1140.233463 98.100964 -47.214622
1140.233463 96.652306 -45.835713
1140.233463 95.203647 -44.456805
1140.233463 93.754989 -43.077897
1140.233463 92.306330 -41.698988
1140.233463 90.857671 -40.320080
1140.233463 89.409013 -38.941171
1140.233463 87.960354 -37.562263
1140.233463 86.511696 -36.183355
1140.233463 85.063037 -34.804446
1140.233463 83.614378 -33.425538
1140.233463 82.165720 -32.046630
1140.233463 80.717061 -30.667721
1140.233463 79.268403 -29.288813
1140.233463 77.819744 -27.909905
1140.233463 76.371085 -26.530996
1140.233463 74.922427 -25.152088
1140.233463 73.473768 -23.773179
1140.233463 72.025110 -22.394271
1140.233463 70.576451 -21.015363
1140.233463 69.127793 -19.636454
1140.233463 67.679134 -18.257546
1140.233463 65.307393 -16.000000
1138.403901 65.307393 -15.192100
1136.574338 65.307393 -14.384201
1134.744776 65.307393 -13.576301
1132.915214 65.307393 -12.768402
1131.085651 65.307393 -11.960502
1129.256089 65.307393 -11.152603
1127.426527 65.307393 -10.344703
1125.596964 65.307393 -9.536804
1123.767402 65.307393 -8.728904
1121.937840 65.307393 -7.921005
1120.108277 65.307393 -7.113105
1118.278715 65.307393 -6.305206
1116.449153 65.307393 -5.497306
1114.619590 65.307393 -4.689407
1112.790028 65.307393 -3.881507
1110.960466 65.307393 -3.073608
1109.130903 65.307393 -2.265708
1107.301341 65.307393 -1.457809
1104.000000 65.307393 0.000000
1102.094959 65.307393 -0.608950
1100.189918 65.307393 -1.217899
1098.284878 65.307393 -1.826849
1096.379837 65.307393 -2.435798
1094.474796 65.307393 -3.044748
1092.569755 65.307393 -3.653698
1090.664715 65.307393 -4.262647
1088.759674 65.307393 -4.871597
1086.854633 65.307393 -5.480546
1084.949592 65.307393 -6.089496
1083.044551 65.307393 -6.698446
1081.139511 65.307393 -7.307395
1079.234470 65.307393 -7.916345
1077.329429 65.307393 -8.525294
1075.424388 65.307393 -9.134244
1073.519347 65.307393 -9.743194
1071.614307 65.307393 -10.352143
1069.709266 65.307393 -10.961093
1067.804225 65.307393 -11.570042
1065.899184 65.307393 -12.178992
1063.994144 65.307393 -12.787942
1062.089103 65.307393 -13.396891
1060.184062 65.307393 -14.005841
1058.279021 65.307393 -14.614790
1056.373980 65.307393 -15.223740
1053.945525 65.307393 -16.000000
1052.606517 65.756359 -17.416152
1051.267510 66.205325 -18.832305
1049.928502 66.654291 -20.248457
1048.589494 67.103257 -21.664609
1047.250486 67.552222 -23.080762
1045.911478 68.001188 -24.496914
1044.572470 68.450154 -25.913067
1043.233462 68.899120 -27.329219
1041.894454 69.348086 -28.745371
1040.555446 69.797052 -30.161524
1039.216439 70.246018 -31.577676
1037.877431 70.694984 -32.993828
1036.538423 71.143950 -34.409981
1035.199415 71.592915 -35.826133
1033.860407 72.041881 -37.242286
1032.521399 72.490847 -38.658438
1031.182391 72.939813 -40.074590
1029.843383 73.388779 -41.490743
1028.504376 73.837745 -42.906895
1027.165368 74.286711 -44.323047
1025.826360 74.735677 -45.739200
1024.487352 75.184642 -47.155352
1023.148344 75.633608 -48.571504
1021.809336 76.082574 -49.987657
1020.470328 76.531540 -51.403809
1019.131320 76.980506 -52.819962
1017.792313 77.429472 -54.236114
1016.453305 77.878438 -55.652266
1015.114297 78.327404 -57.068419
1013.775289 78.776370 -58.484571
1012.436281 79.225335 -59.900723
1011.097273 79.674301 -61.316876
1009.758265 80.123267 -62.733028
1008.419257 80.572233 -64.149181
1007.080249 81.021199 -65.565333
1005.741242 81.470165 -66.981485
1004.402234 81.919131 -68.397638
1003.063226 82.368097 -69.813790
1001.724218 82.817063 -71.229942
1000.385210 83.266028 -72.646095
999.046202 83.714994 -74.062247
997.707194 84.163960 -75.478399
996.368186 84.612926 -76.894552
995.029179 85.061892 -78.310704
993.690171 85.510858 -79.726857
992.351163 85.959824 -81.143009
991.012155 86.408790 -82.559161
989.673147 86.857756 -83.975314
988.334139 87.306721 -85.391466
986.995131 87.755687 -86.807618
985.656123 88.204653 -88.223771
984.317115 88.653619 -89.639923
982.978108 89.102585 -91.056075
981.639100 89.551551 -92.472228
980.300092 90.000517 -93.888380
978.961084 90.449483 -95.304533
977.622076 90.898448 -96.720685
976.283068 91.347414 -98.136837
974.944060 91.796380 -99.552990
973.605052 92.245346 -100.969142
972.266045 92.694312 -102.385294
970.927037 93.143278 -103.801447
969.588029 93.592244 -105.217599
968.249021 94.041210 -106.633752
966.910013 94.490176 -108.049904
965.571005 94.939141 -109.466056
964.231997 95.388107 -110.882209
962.892989 95.837073 -112.298361
961.553982 96.286039 -113.714513
960.214974 96.735005 -115.130666
958.875966 97.183971 -116.546818
957.536958 97.632937 -117.962970
956.197950 98.081903 -119.379123
954.858942 98.530869 -120.795275
953.519934 98.979834 -122.211428
952.180926 99.428800 -123.627580
950.841918 99.877766 -125.043732
949.502911 100.326732 -126.459885
948.163903 100.775698 -127.876037
946.824895 101.224664 -129.292189
945.485887 101.673630 -130.708342
944.146879 102.122596 -132.124494
942.807871 102.571562 -133.540647
941.468863 103.020527 -134.956799
940.129855 103.469493 -136.372951
938.790848 103.918459 -137.789104
937.451840 104.367425 -139.205256
936.112832 104.816391 -140.621408
934.773824 105.265357 -142.037561
933.434816 105.714323 -143.453713
932.095808 106.163289 -144.869865
930.756800 106.612255 -146.286018
929.417792 107.061220 -147.702170
928.078785 107.510186 -149.118323
926.739777 107.959152 -150.534475
925.400769 108.408118 -151.950627
924.061761 108.857084 -153.366780
922.722753 109.306050 -154.782932
921.383745 109.755016 -156.199084
920.044737 110.203982 -157.615237
918.705729 110.652947 -159.031389
917.366721 111.101913 -160.447542
916.027714 111.550879 -161.863694
914.688706 111.999845 -163.279846
913.349698 112.448811 -164.695999
912.010690 112.897777 -166.112151
910.671682 113.346743 -167.528303
909.332674 113.795709 -168.944456
907.993666 114.244675 -170.360608
906.654658 114.693640 -171.776760
905.315651 115.142606 -173.192913
903.976643 115.591572 -174.609065
902.637635 116.040538 -176.025218
901.298627 116.489504 -177.441370
899.959619 116.938470 -178.857522
898.620611 117.387436 -180.273675
897.281603 117.836402 -181.689827
895.942595 118.285368 -183.105979
894.603587 118.734333 -184.522132
893.264580 119.183299 -185.938284
891.925572 119.632265 -187.354436
890.586564 120.081231 -188.770589
889.247556 120.530197 -190.186741
887.533074 121.105058 -192.000000
885.559393 121.302426 -192.256180
883.585711 121.499795 -192.512360
881.612030 121.697163 -192.768540
879.638349 121.894531 -193.024719
877.664668 122.091899 -193.280899
875.690986 122.289267 -193.537079
873.717305 122.486635 -193.793259
871.743624 122.684003 -194.049439
869.769943 122.881371 -194.305619
867.796261 123.078740 -194.561798
865.822580 123.276108 -194.817978
863.848899 123.473476 -195.074158
861.875218 123.670844 -195.330338
859.901536 123.868212 -195.586518
857.927855 124.065580 -195.842698
855.954174 124.262948 -196.098877
853.980493 124.460317 -196.355057
852.006811 124.657685 -196.611237
850.033130 124.855053 -196.867417
848.059449 125.052421 -197.123597
846.085767 125.249789 -197.379777
844.112086 125.447157 -197.635956
842.138405 125.644525 -197.892136
840.164724 125.841893 -198.148316
838.191042 126.039262 -198.404496
836.217361 126.236630 -198.660676
834.243680 126.433998 -198.916856
832.269999 126.631366 -199.173036
830.296317 126.828734 -199.429215
828.322636 127.026102 -199.685395
826.348955 127.223470 -199.941575
824.375274 127.420838 -200.197755
822.401592 127.618207 -200.453935
820.427911 127.815575 -200.710115
818.454230 128.012943 -200.966294
816.480549 128.210311 -201.222474
814.506867 128.407679 -201.478654
812.533186 128.605047 -201.734834
810.559505 128.802415 -201.991014
808.585824 128.999783 -202.247194
806.612142 129.197152 -202.503373
804.638461 129.394520 -202.759553
802.664780 129.591888 -203.015733
800.691099 129.789256 -203.271913
798.717417 129.986624 -203.528093
796.743736 130.183992 -203.784273
794.770055 130.381360 -204.040452
792.796373 130.578728 -204.296632
790.822692 130.776097 -204.552812
788.849011 130.973465 -204.808992
786.875330 131.170833 -205.065172
784.901648 131.368201 -205.321352
782.927967 131.565569 -205.577532
780.954286 131.762937 -205.833711
778.980605 131.960305 -206.089891
777.006923 132.157673 -206.346071
775.033242 132.355042 -206.602251
773.059561 132.552410 -206.858431
771.085880 132.749778 -207.114611
769.112198 132.947146 -207.370790
767.138517 133.144514 -207.626970
764.264591 133.431907 -208.000000
762.305924 133.087326 -208.211859
760.347256 132.742746 -208.423719
758.388588 132.398165 -208.635578
756.429920 132.053585 -208.847437
754.471252 131.709004 -209.059296
752.512584 131.364424 -209.271156
750.553916 131.019843 -209.483015
748.595248 130.675263 -209.694874
746.636580 130.330682 -209.906734
744.677912 129.986102 -210.118593
742.719245 129.641522 -210.330452
740.760577 129.296941 -210.542311
738.801909 128.952361 -210.754171
736.843241 128.607780 -210.966030
734.884573 128.263200 -211.177889
732.925905 127.918619 -211.389748
730.967237 127.574039 -211.601608
729.008569 127.229458 -211.813467
727.049901 126.884878 -212.025326
725.091233 126.540297 -212.237186
723.132566 126.195717 -212.449045
721.173898 125.851136 -212.660904
719.215230 125.506556 -212.872763
717.256562 125.161975 -213.084623
715.297894 124.817395 -213.296482
713.339226 124.472815 -213.508341
711.380558 124.128234 -213.720201
709.421890 123.783654 -213.932060
707.463222 123.439073 -214.143919
705.504554 123.094493 -214.355778
703.545886 122.749912 -214.567638
701.587219 122.405332 -214.779497
699.628551 122.060751 -214.991356
697.669883 121.716171 -215.203216
695.711215 121.371590 -215.415075
693.752547 121.027010 -215.626934
691.793879 120.682429 -215.838793
689.835211 120.337849 -216.050653
687.876543 119.993269 -216.262512
685.917875 119.648688 -216.474371
683.959207 119.304108 -216.686231
682.000540 118.959527 -216.898090
680.041872 118.614947 -217.109949
678.083204 118.270366 -217.321808
676.124536 117.925786 -217.533668
674.165868 117.581205 -217.745527
672.207200 117.236625 -217.957386
670.248532 116.892044 -218.169245
668.289864 116.547464 -218.381105
666.331196 116.202883 -218.592964
664.372528 115.858303 -218.804823
662.413861 115.513722 -219.016683
660.455193 115.169142 -219.228542
658.496525 114.824562 -219.440401
656.537857 114.479981 -219.652260
654.579189 114.135401 -219.864120
652.620521 113.790820 -220.075979
650.661853 113.446240 -220.287838
648.703185 113.101659 -220.499698
646.744517 112.757079 -220.711557
644.785849 112.412498 -220.923416
642.827182 112.067918 -221.135275
640.868514 111.723337 -221.347135
638.909846 111.378757 -221.558994
636.951178 111.034176 -221.770853
634.992510 110.689596 -221.982713
633.033842 110.345016 -222.194572
631.075174 110.000435 -222.406431
629.116506 109.655855 -222.618290
627.157838 109.311274 -222.830150
625.199170 108.966694 -223.042009
623.240503 108.622113 -223.253868
621.281835 108.277533 -223.465727
619.323167 107.932952 -223.677587
617.364499 107.588372 -223.889446
615.405831 107.243791 -224.101305
613.447163 106.899211 -224.313165
611.488495 106.554630 -224.525024
609.529827 106.210050 -224.736883
607.571159 105.865469 -224.948742
605.612491 105.520889 -225.160602
603.653824 105.176309 -225.372461
601.695156 104.831728 -225.584320
599.736488 104.487148 -225.796180
597.777820 104.142567 -226.008039
595.819152 103.797987 -226.219898
593.860484 103.453406 -226.431757
591.901816 103.108826 -226.643617
589.943148 102.764245 -226.855476
587.984480 102.419665 -227.067335
586.025812 102.075084 -227.279195
584.067144 101.730504 -227.491054
582.108477 101.385923 -227.702913
580.149809 101.041343 -227.914772
578.191141 100.696763 -228.126632
576.232473 100.352182 -228.338491
574.273805 100.007602 -228.550350
572.315137 99.663021 -228.762209
570.356469 99.318441 -228.974069
568.397801 98.973860 -229.185928
566.439133 98.629280 -229.397787
564.480465 98.284699 -229.609647
562.521798 97.940119 -229.821506
560.563130 97.595538 -230.033365
558.604462 97.250958 -230.245224
556.645794 96.906377 -230.457084
554.687126 96.561797 -230.668943
552.728458 96.217216 -230.880802
550.769790 95.872636 -231.092662
548.811122 95.528056 -231.304521
546.852454 95.183475 -231.516380
544.893786 94.838895 -231.728239
542.935119 94.494314 -231.940099
540.976451 94.149734 -232.151958
539.017783 93.805153 -232.363817
537.059115 93.460573 -232.575677
535.100447 93.115992 -232.787536
533.141779 92.771412 -232.999395
531.183111 92.426831 -233.211254
529.224443 92.082251 -233.423114
527.265775 91.737670 -233.634973
525.307107 91.393090 -233.846832
523.348440 91.048510 -234.058692
521.389772 90.703929 -234.270551
519.431104 90.359349 -234.482410
517.472436 90.014768 -234.694269
515.513768 89.670188 -234.906129
513.555100 89.325607 -235.117988
511.596432 88.981027 -235.329847
509.637764 88.636446 -235.541706
507.679096 88.291866 -235.753566
505.720428 87.947285 -235.965425
503.761761 87.602705 -236.177284
501.803093 87.258124 -236.389144
499.844425 86.913544 -236.601003
497.885757 86.568963 -236.812862
495.927089 86.224383 -237.024721
493.968421 85.879803 -237.236581
492.009753 85.535222 -237.448440
490.051085 85.190642 -237.660299
488.092417 84.846061 -237.872159
486.133749 84.501481 -238.084018
484.175082 84.156900 -238.295877
482.216414 83.812320 -238.507736
480.257746 83.467739 -238.719596
478.299078 83.123159 -238.931455
476.340410 82.778578 -239.143314
474.381742 82.433998 -239.355174
472.423074 82.089417 -239.567033
470.464406 81.744837 -239.778892
468.505738 81.400257 -239.990751
466.547070 81.055676 -240.202611
464.588402 80.711096 -240.414470
462.629735 80.366515 -240.626329
460.671067 80.021935 -240.838188
458.712399 79.677354 -241.050048
456.753731 79.332774 -241.261907
454.795063 78.988193 -241.473766
452.836395 78.643613 -241.685626
450.877727 78.299032 -241.897485
448.919059 77.954452 -242.109344
446.960391 77.609871 -242.321203
445.001723 77.265291 -242.533063
443.043056 76.920710 -242.744922
441.084388 76.576130 -242.956781
439.125720 76.231550 -243.168641
437.167052 75.886969 -243.380500
435.208384 75.542389 -243.592359
433.249716 75.197808 -243.804218
431.291048 74.853228 -244.016078
429.332380 74.508647 -244.227937
427.373712 74.164067 -244.439796
425.415044 73.819486 -244.651656
423.456377 73.474906 -244.863515
421.497709 73.130325 -245.075374
419.539041 72.785745 -245.287233
417.580373 72.441164 -245.499093
415.621705 72.096584 -245.710952
413.663037 71.752004 -245.922811
411.704369 71.407423 -246.134671
409.745701 71.062843 -246.346530
407.787033 70.718262 -246.558389
405.828365 70.373682 -246.770248
403.869698 70.029101 -246.982108
401.911030 69.684521 -247.193967
399.952362 69.339940 -247.405826
397.993694 68.995360 -247.617685
396.035026 68.650779 -247.829545
394.076358 68.306199 -248.041404
392.117690 67.961618 -248.253263
390.159022 67.617038 -248.465123
388.200354 67.272457 -248.676982
386.241686 66.927877 -248.888841
384.283019 66.583297 -249.100700
382.324351 66.238716 -249.312560
380.365683 65.894136 -249.524419
378.407015 65.549555 -249.736278
376.448347 65.204975 -249.948138
374.489679 64.860394 -250.159997
372.531011 64.515814 -250.371856
370.572343 64.171233 -250.583715
368.613675 63.826653 -250.795575
366.655007 63.482072 -251.007434
364.696340 63.137492 -251.219293
362.737672 62.792911 -251.431153
360.779004 62.448331 -251.643012
358.820336 62.103751 -251.854871
356.861668 61.759170 -252.066730
354.903000 61.414590 -252.278590
352.944332 61.070009 -252.490449
350.985664 60.725429 -252.702308
349.026996 60.380848 -252.914167
347.068328 60.036268 -253.126027
345.109660 59.691687 -253.337886
343.150993 59.347107 -253.549745
341.192325 59.002526 -253.761605
339.233657 58.657946 -253.973464
337.274989 58.313365 -254.185323
335.316321 57.968785 -254.397182
333.357653 57.624204 -254.609042
331.398985 57.279624 -254.820901
329.440317 56.935044 -255.032760
327.481649 56.590463 -255.244620
325.522981 56.245883 -255.456479
323.564314 55.901302 -255.668338
321.605646 55.556722 -255.880197
319.646978 55.212141 -256.092057
317.688310 54.867561 -256.303916
315.729642 54.522980 -256.515775
313.770974 54.178400 -256.727635
311.812306 53.833819 -256.939494
309.853638 53.489239 -257.151353
307.894970 53.144658 -257.363212
305.936302 52.800078 -257.575072
303.977635 52.455498 -257.786931
302.018967 52.110917 -257.998790
300.060299 51.766337 -258.210650
298.101631 51.421756 -258.422509
296.142963 51.077176 -258.634368
294.184295 50.732595 -258.846227
292.225627 50.388015 -259.058087
290.266959 50.043434 -259.269946
288.308291 49.698854 -259.481805
286.349623 49.354273 -259.693664
284.390956 49.009693 -259.905524
282.432288 48.665112 -260.117383
280.473620 48.320532 -260.329242
278.514952 47.975951 -260.541102
276.556284 47.631371 -260.752961
274.597616 47.286791 -260.964820
272.638948 46.942210 -261.176679
270.680280 46.597630 -261.388539
268.721612 46.253049 -261.600398
266.762944 45.908469 -261.812257
264.804277 45.563888 -262.024117
262.845609 45.219308 -262.235976
260.886941 44.874727 -262.447835
258.928273 44.530147 -262.659694
256.969605 44.185566 -262.871554
255.010937 43.840986 -263.083413
253.052269 43.496405 -263.295272
251.093601 43.151825 -263.507132
249.134933 42.807245 -263.718991
247.176265 42.462664 -263.930850
245.217598 42.118084 -264.142709
243.258930 41.773503 -264.354569
241.300262 41.428923 -264.566428
239.341594 41.084342 -264.778287
237.382926 40.739762 -264.990146
235.424258 40.395181 -265.202006
233.465590 40.050601 -265.413865
231.506922 39.706020 -265.625724
229.548254 39.361440 -265.837584
227.589586 39.016859 -266.049443
225.630918 38.672279 -266.261302
223.672251 38.327699 -266.473161
221.713583 37.983118 -266.685021
219.754915 37.638538 -266.896880
217.796247 37.293957 -267.108739
215.837579 36.949377 -267.320599
213.878911 36.604796 -267.532458
211.920243 36.260216 -267.744317
209.961575 35.915635 -267.956176
208.002907 35.571055 -268.168036
206.044239 35.226474 -268.379895
204.085572 34.881894 -268.591754
202.126904 34.537313 -268.803614
200.168236 34.192733 -269.015473
198.209568 33.848152 -269.227332
196.250900 33.503572 -269.439191
194.292232 33.158992 -269.651051
192.333564 32.814411 -269.862910
190.374896 32.469831 -270.074769
188.416228 32.125250 -270.286628
186.457560 31.780670 -270.498488
184.498893 31.436089 -270.710347
182.540225 31.091509 -270.922206
180.581557 30.746928 -271.134066
178.622889 30.402348 -271.345925
176.664221 30.057767 -271.557784
174.705553 29.713187 -271.769643
172.746885 29.368606 -271.981503
170.788217 29.024026 -272.193362
168.829549 28.679446 -272.405221
166.870881 28.334865 -272.617081
164.912214 27.990285 -272.828940
162.953546 27.645704 -273.040799
160.994878 27.301124 -273.252658
159.036210 26.956543 -273.464518
157.077542 26.611963 -273.676377
155.118874 26.267382 -273.888236
153.160206 25.922802 -274.100096
151.201538 25.578221 -274.311955
149.242870 25.233641 -274.523814
147.284202 24.889060 -274.735673
145.325535 24.544480 -274.947533
143.366867 24.199899 -275.159392
141.408199 23.855319 -275.371251
139.449531 23.510739 -275.583111
137.490863 23.166158 -275.794970
135.532195 22.821578 -276.006829
133.573527 22.476997 -276.218688
131.614859 22.132417 -276.430548
129.656191 21.787836 -276.642407
127.697523 21.443256 -276.854266
125.738856 21.098675 -277.066125
123.780188 20.754095 -277.277985
121.821520 20.409514 -277.489844
119.862852 20.064934 -277.701703
117.904184 19.720353 -277.913563
115.945516 19.375773 -278.125422
113.986848 19.031193 -278.337281
112.028180 18.686612 -278.549140
110.069512 18.342032 -278.761000
108.110844 17.997451 -278.972859
106.152176 17.652871 -279.184718
104.193509 17.308290 -279.396578
102.234841 16.963710 -279.608437
98.614786 16.326848 -280.000000
97.754976 16.420124 -281.803338
96.895167 16.513400 -283.606676
96.035357 16.606677 -285.410013
95.175548 16.699953 -287.213351
94.315738 16.793229 -289.016689
93.455929 16.886505 -290.820027
92.596119 16.979781 -292.623364
91.736309 17.073057 -294.426702
90.876500 17.166333 -296.230040
90.016690 17.259609 -298.033378
89.156881 17.352885 -299.836715
88.297071 17.446161 -301.640053
87.437262 17.539437 -303.443391
86.577452 17.632714 -305.246729
85.717642 17.725990 -307.050066
84.857833 17.819266 -308.853404
83.998023 17.912542 -310.656742
83.138214 18.005818 -312.460080
82.278404 18.099094 -314.263417
81.418595 18.192370 -316.066755
80.558785 18.285646 -317.870093
79.698975 18.378922 -319.673431
78.839166 18.472198 -321.476768
77.979356 18.565474 -323.280106
77.119547 18.658751 -325.083444
76.259737 18.752027 -326.886782
75.399928 18.845303 -328.690119
74.540118 18.938579 -330.493457
73.680308 19.031855 -332.296795
72.820499 19.125131 -334.100133
71.960689 19.218407 -335.903471
71.100880 19.311683 -337.706808
70.241070 19.404959 -339.510146
69.381261 19.498235 -341.313484
68.521451 19.591511 -343.116822
67.661641 19.684788 -344.920159
66.801832 19.778064 -346.723497
65.942022 19.871340 -348.526835
65.082213 19.964616 -350.330173
64.222403 20.057892 -352.133510
63.362594 20.151168 -353.936848
62.502784 20.244444 -355.740186
61.642974 20.337720 -357.543524
60.783165 20.430996 -359.346861
59.923355 20.524272 -361.150199
59.063546 20.617548 -362.953537
58.203736 20.710825 -364.756875
57.343927 20.804101 -366.560212
56.484117 20.897377 -368.363550
55.624307 20.990653 -370.166888
54.764498 21.083929 -371.970226
53.904688 21.177205 -373.773563
53.044879 21.270481 -375.576901
52.185069 21.363757 -377.380239
51.325260 21.457033 -379.183577
50.465450 21.550309 -380.986915
49.605640 21.643585 -382.790252
48.745831 21.736862 -384.593590
47.886021 21.830138 -386.396928
47.026212 21.923414 -388.200266
46.166402 22.016690 -390.003603
45.306593 22.109966 -391.806941
44.446783 22.203242 -393.610279
43.586973 22.296518 -395.413617
42.727164 22.389794 -397.216954
41.867354 22.483070 -399.020292
41.007545 22.576346 -400.823630
40.147735 22.669622 -402.626968
39.287926 22.762899 -404.430305
38.428116 22.856175 -406.233643
37.568307 22.949451 -408.036981
36.708497 23.042727 -409.840319
35.848687 23.136003 -411.643656
34.988878 23.229279 -413.446994
34.129068 23.322555 -415.250332
33.269259 23.415831 -417.053670
32.409449 23.509107 -418.857007
31.549640 23.602383 -420.660345
30.689830 23.695659 -422.463683
29.830020 23.788936 -424.267021
28.970211 23.882212 -426.070358
28.110401 23.975488 -427.873696
27.250592 24.068764 -429.677034
26.390782 24.162040 -431.480372
25.530973 24.255316 -433.283710
24.671163 24.348592 -435.087047
23.811353 24.441868 -436.890385
22.951544 24.535144 -438.693723
22.091734 24.628420 -440.497061
21.231925 24.721696 -442.300398
20.372115 24.814973 -444.103736
19.512306 24.908249 -445.907074
18.652496 25.001525 -447.710412
17.792686 25.094801 -449.513749
16.932877 25.188077 -451.317087
16.073067 25.281353 -453.120425
15.213258 25.374629 -454.923763
14.353448 25.467905 -456.727100
13.493639 25.561181 -458.530438
12.633829 25.654457 -460.333776
11.774019 25.747733 -462.137114
10.914210 25.841010 -463.940451
10.054400 25.934286 -465.743789
9.194591 26.027562 -467.547127
8.334781 26.120838 -469.350465
7.474972 26.214114 -471.153802
6.615162 26.307390 -472.957140
5.755352 26.400666 -474.760478
4.895543 26.493942 -476.563816
4.035733 26.587218 -478.367154
3.175924 26.680494 -480.170491
2.316114 26.773770 -481.973829
1.456305 26.867047 -483.777167
0.596495 26.960323 -485.580505
-0.263315 27.053599 -487.383842
-1.123124 27.146875 -489.187180
-1.982934 27.240151 -490.990518
-2.842743 27.333427 -492.793856
-3.702553 27.426703 -494.597193
-4.562362 27.519979 -496.400531
-5.422172 27.613255 -498.203869
-6.281982 27.706531 -500.007207
-7.141791 27.799807 -501.810544
-8.001601 27.893084 -503.613882
-8.861410 27.986360 -505.417220
-9.721220 28.079636 -507.220558
-10.581029 28.172912 -509.023895
-12.000000 28.326848 -512.000000
-11.858137 30.294157 -512.331013
-11.716275 32.261467 -512.662026
-11.574412 34.228776 -512.993039
-11.432549 36.196085 -513.324051
-11.290687 38.163394 -513.655064
-11.148824 40.130703 -513.986077
-11.006961 42.098013 -514.317090
-10.865099 44.065322 -514.648103
-10.723236 46.032631 -514.979116
-10.581374 47.999940 -515.310128
-10.439511 49.967249 -515.641141
-10.297648 51.934559 -515.972154
-10.155786 53.901868 -516.303167
-10.013923 55.869177 -516.634180
-9.872060 57.836486 -516.965193
-9.730198 59.803795 -517.296205
-9.588335 61.771105 -517.627218
-9.446472 63.738414 -517.958231
-9.304610 65.705723 -518.289244
-9.162747 67.673032 -518.620257
-9.020884 69.640341 -518.951270
-8.879022 71.607651 -519.282282
-8.737159 73.574960 -519.613295
-8.595297 75.542269 -519.944308
